21 195 707
21 195 703
21 194 699
20 193 695
-19 254 953
-18 246 921
21 199 712
21 199 708
21 198 704
19 188 667
19 187 663
21 203 717
21 203 713
21 202 709
21 201 705
21 205 716
12 209 738
-9 251 905
-9 250 899
21 206 714
21 205 711
19 195 675
19 195 671
21 211 725
-19 269 962
-19 267 955
26 251 856
26 250 851
26 249 845
21 216 733
20 206 700
-18 259 914
-18 257 904
-18 257 901
-21 324 1135
-21 322 1125
-19 282 983
-19 280 976
-19 279 968
-20 294 1018
-20 292 1010
-20 290 1002
-20 289 994
-19 271 933
-19 270 927
-19 269 920
-19 267 913
-20 299 1018
-20 297 1010
-20 295 1002
-20 294 994
-20 292 987
-20 306 1033
-20 304 1025
-20 303 1016
-20 301 1009
-19 284 950
-19 282 943
-19 281 937
-19 279 930
-20 307 1014
-20 305 1006
-21 319 1048
-21 317 1040
-20 315 1031
-20 298 975
-20 297 968
-20 295 961
-20 293 954
-19 292 947
-21 327 1059
-21 325 1050
-21 323 1042
-22 324 1045
-23 337 1084
-23 335 1075
-23 333 1066
-23 331 1058
-22 315 1004
-22 313 996
-22 311 989
-22 309 981
-22 307 974
-22 306 966
-26 394 1241
-25 391 1229
-23 339 1065
-24 351 1100
-23 349 1091
-23 346 1082
-23 344 1073
-22 329 1023
-22 327 1015
-22 325 1007
-22 323 999
-22 321 991
-22 319 984
-24 359 1103
-24 356 1094
-24 354 1085
-22 361 1102
-22 358 1093
-22 356 1084
-22 353 1075
-21 339 1030
-21 337 1022
-22 357 1080
-21 333 1006
-21 331 998
-21 329 991
-21 327 983
-21 325 976
-20 324 969
-14 120 363
7 179 433
-11 41 986
-10 41 973
-10 41 960
-9 41 948
-7 52 596
-7 53 593
-7 57 627
-7 57 624
-7 57 620
-7 57 617
-7 58 614
-7 58 611
-7 60 632
-7 60 628
-7 60 625
-7 58 599
-7 58 596
-7 58 593
-6 69 694
-6 69 690
-6 69 686
-7 63 627
-7 63 623
-7 63 620
-7 66 642
-7 66 638
-7 66 635
-7 63 608
-7 63 605
-7 63 602
-8 64 602
-8 69 650
-8 69 646
-8 69 643
-8 69 639
-8 69 636
-8 72 656
-8 72 653
-8 72 649
-8 69 623
-8 69 620
-8 74 652
-8 69 614
-8 102 886
-8 102 880
-8 101 873
-8 76 652
-8 76 648
-8 78 667
-8 78 663
-8 78 660
-8 75 635
-8 75 631
-8 75 628
-8 75 625
-8 75 622
-8 82 672
-7 82 663
-5 81 651
-5 81 647
-4 83 664
-4 83 660
-5 83 657
-5 83 653
-5 81 631
-5 81 627
-5 81 624
-5 81 621
-5 81 618
-4 96 729
-4 96 724
-5 87 660
-4 90 674
-5 90 671
-5 90 667
-5 90 663
-5 87 643
-5 87 639
-5 87 636
-5 87 633
-5 87 629
-5 94 680
-5 94 676
-5 94 673
-4 96 685
-5 96 682
-5 96 678
-5 96 674
-9 95 673
-9 95 669
-9 95 666
-9 95 662
-9 95 659
-9 95 655
-9 103 702
-9 105 713
-9 105 709
-9 105 705
-9 109 732
-9 109 728
-9 109 723
-9 109 719
-9 108 715
-9 108 711
-9 118 773
-9 118 768
-9 118 763
-9 112 725
-9 112 721
-9 112 717
-9 117 745
-9 116 740
-9 114 720
-9 116 732
-9 116 727
-9 115 723
-9 115 719
-10 139 863
-10 135 836
-10 131 810
-9 119 734
-9 119 729
-9 124 758
-9 124 754
-9 124 749
-9 123 745
-9 123 740
-9 123 736
-9 122 732
-10 123 730
-10 115 686
-10 115 682
-5 113 660
-5 113 656
-5 116 673
3 114 646
3 123 696
2 105 594
2 105 591
15 98 535
29 160 862
29 160 856
3 65 361
9 103 561
8 177 968
8 177 961
8 176 954
8 175 946
3 120 649
27 155 807
26 154 801
17 111 577
26 153 791
26 153 786
26 152 781
25 152 776
25 151 772
25 151 767
20 127 645
20 127 642
18 117 593
17 115 580
17 117 588
17 117 585
17 116 582
17 116 579
17 116 577
16 111 552
17 119 590
17 120 589
17 119 586
17 119 583
16 119 581
16 119 578
17 121 587
6 128 631
6 127 628
17 120 577
17 120 575
16 120 574
5 124 603
5 123 600
5 123 597
4 114 553
7 141 677
7 140 674
7 140 670
7 139 664
6 139 663
6 133 632
6 133 631
6 133 628
6 133 625
5 132 622
6 137 643
6 137 639
6 137 636
-10 148 708
-10 148 704
-12 162 770
-12 162 765
-12 161 760
-12 154 723
-12 153 719
-12 153 715
-11 152 709
-12 152 707
-12 158 734
-12 158 730
-12 157 725
-12 157 721
-12 156 717
-12 170 774
-12 169 769
-12 168 765
-12 161 727
-12 160 723
-12 160 719
-12 159 715
-12 159 711
-12 165 738
-12 165 734
-11 164 727
-11 163 722
-11 154 680
-11 153 676
-12 177 775
-12 168 737
-11 168 733
-11 167 729
-11 167 724
-11 166 720
-11 166 716
-12 173 746
-12 172 742
-12 172 738
-12 171 731
-12 171 729
-12 170 725
-12 204 864
6 159 658
18 152 615
19 161 647
-11 189 795
-13 191 803
-13 191 798
-13 194 812
-13 194 807
-13 193 802
-13 192 797
-14 196 810
-13 195 805
-13 195 800
-13 184 757
-13 184 753
-13 183 748
-14 201 818
-14 200 813
-14 199 808
-14 198 803
-14 202 817
-14 202 811
-14 201 806
-14 201 804
-15 221 882
-16 221 880
-16 225 896
-16 224 890
-16 229 907
-16 228 901
-16 227 894
-16 226 888
-15 214 839
-17 261 1019
-16 231 901
-16 234 910
-16 233 904
-16 231 897
19 206 767
-17 242 930
-17 228 877
-16 226 867
-16 247 944
-17 249 950
-10 240 907
-10 239 901
-9 236 886
-9 235 880
21 195 704
21 194 700
21 194 696
-32 265 1006
11 210 761
21 200 713
21 199 709
-2 229 839
-5 219 802
0 212 771
-17 256 939
-17 254 932
-17 253 926
-11 250 909
-17 248 904
-16 248 902
-10 252 909
-10 251 903
-10 237 852
-10 234 840
12 205 715
12 204 711
-19 269 964
27 252 864
28 271 925
21 209 713
22 217 738
22 216 734
20 207 701
20 206 697
20 205 691
20 205 690
25 242 814
24 241 809
22 219 735
21 219 731
-19 279 970
-20 294 1020
-19 293 1012
-19 291 1004
-19 289 996
-19 272 935
-19 270 928
-18 269 922
-18 268 915
-20 299 1020
-20 297 1012
-20 296 1004
-19 294 996
-19 292 989
-20 307 1035
-20 305 1027
-20 303 1019
-20 301 1011
-19 284 952
-19 283 945
-19 281 938
-19 280 932
-20 308 1016
-21 332 1092
-20 319 1050
-20 317 1042
-20 316 1033
-19 299 977
-19 297 970
-19 296 963
-19 294 955
-19 292 948
-21 328 1061
-21 326 1052
-20 324 1044
-20 322 1035
-21 335 1074
-21 332 1066
-21 330 1057
-21 328 1048
-20 312 995
-20 310 988
-20 309 980
-21 310 983
-21 308 976
-21 306 968
-25 395 1244
-25 392 1232
-23 340 1067
-23 352 1102
-23 349 1093
-23 347 1084
-23 345 1075
-22 329 1025
-22 327 1017
-23 349 1081
-22 323 1001
-22 321 993
-22 319 986
-24 359 1106
-23 357 1096
-23 355 1087
-24 365 1118
-24 363 1108
-24 360 1099
-23 358 1090
-23 343 1044
-23 341 1035
-24 362 1095
-22 337 1019
-22 335 1011
-22 333 1003
-22 331 996
-22 329 988
-22 327 981
-13 119 361
8 179 434
-11 41 987
-10 41 974
-10 41 966
-10 41 959
-6 52 596
-6 57 628
-6 57 624
-6 57 621
-6 58 618
-6 58 615
-6 58 612
-6 60 632
-6 60 629
-6 60 626
-6 58 599
-6 58 596
-6 58 594
-6 69 694
-6 69 690
-6 69 687
-6 63 627
-6 63 624
-6 63 621
-6 66 642
-6 66 639
-6 66 636
-6 63 608
-6 63 605
-6 63 602
-6 64 599
-6 69 646
-6 69 643
-6 69 639
-6 69 636
-6 69 633
-6 72 653
-6 72 649
-6 72 646
-6 69 620
-6 69 617
-6 73 648
-8 69 614
-8 102 888
-8 102 881
-8 83 716
-8 76 652
-8 76 649
-8 78 668
-8 78 664
-8 78 660
-8 76 635
-8 75 632
-8 75 629
-8 75 626
-8 75 622
-8 82 672
-8 82 669
-8 82 665
-8 82 662
-8 85 678
-8 84 675
-8 84 671
-8 82 648
-8 82 644
-8 82 641
-8 82 637
-8 82 634
-7 81 627
-4 96 730
-4 96 725
-4 88 661
-4 90 675
-4 90 672
-4 90 668
-4 87 647
-4 87 643
-4 87 640
-4 87 637
-5 87 633
-5 87 630
-4 94 681
-4 94 677
-4 94 674
-4 96 686
-4 96 682
-4 96 679
-4 96 675
-4 94 656
-4 94 652
-4 93 649
-5 93 645
-5 93 642
-5 93 639
-4 103 698
-9 105 714
-9 105 710
-9 105 706
-9 109 733
-9 109 729
-9 109 724
-9 109 720
-9 108 716
-9 108 712
-9 118 774
-9 118 769
-9 118 764
-9 112 726
-9 112 722
-9 112 718
-9 117 746
-9 116 742
-9 114 721
-9 116 733
-9 116 728
-9 115 724
-9 115 720
-9 139 864
-9 135 837
-9 132 811
-9 119 735
-9 119 731
-9 124 759
-9 124 755
-9 121 734
-9 123 746
-9 123 741
-9 123 737
-9 123 733
-9 122 728
-10 116 687
-10 115 683
-10 115 679
-5 112 654
-5 118 684
3 114 643
3 113 640
2 105 591
2 105 589
15 98 533
18 113 609
18 113 606
8 178 970
1 102 560
3 120 657
27 156 818
3 120 650
27 155 808
27 154 803
27 154 798
26 153 792
26 153 787
26 152 783
26 152 778
25 151 773
25 151 768
20 127 646
20 127 643
20 127 639
18 117 591
17 117 588
17 117 586
17 117 583
17 116 580
17 116 577
16 111 552
18 120 591
17 120 590
17 120 589
17 119 584
17 119 580
17 119 577
17 121 586
17 121 583
17 120 581
17 120 578
10 124 605
6 126 618
5 124 604
6 123 599
5 123 598
4 114 554
18 132 624
19 132 619
18 132 616
15 134 630
6 134 639
6 134 635
6 133 632
6 133 629
6 133 626
6 138 647
6 137 643
6 137 640
6 137 637
6 136 634
6 136 630
7 147 678
-11 161 760
-11 160 755
-10 153 719
-10 152 715
-10 152 711
-10 151 707
-10 151 703
-10 157 729
-10 157 725
-10 156 721
-10 156 717
-9 91 423
-11 168 764
-11 168 760
-12 161 728
-12 160 724
-12 160 720
-12 159 716
-12 166 743
-12 165 739
-12 165 735
-11 164 728
-11 163 724
-11 163 719
-12 177 781
-11 177 776
-11 168 738
-11 168 734
-11 167 730
-11 167 725
-11 166 721
-11 166 717
-12 173 747
-12 172 743
-12 172 739
-11 171 732
-12 171 730
-12 170 726
-11 197 836
33 240 968
17 154 622
-12 192 808
-10 190 796
-10 189 791
-10 188 786
-13 195 813
-13 194 808
-13 193 803
-13 197 817
-13 196 812
-13 196 807
-13 195 802
-13 185 758
-13 184 754
-13 183 749
-13 201 819
-13 200 814
-13 199 809
-13 199 804
-13 203 818
-13 202 813
-13 201 807
-14 221 885
-15 221 883
-15 220 877
-14 214 853
-14 223 883
-14 228 900
-14 227 894
-14 226 888
-14 225 882
-14 213 833
-17 261 1021
-16 231 902
-16 234 912
-16 233 905
-16 232 899
-14 267 1026
-16 241 928
-16 227 874
-15 226 868
-16 251 958
-16 249 951
-16 248 944
-16 247 937
-16 246 931
-16 244 924
-16 243 917
-16 242 911
-16 247 929
-16 246 922
22 201 718
19 193 691
14 209 751
-4 222 814
-16 231 857
-16 230 851
-16 256 943
-16 255 936
-16 254 930
-17 254 927
-17 259 946
-17 258 939
-17 250 908
-17 262 951
-16 260 939
-16 245 885
-17 243 875
-5 228 811
-84 321 1201
-12 333 1182
-5 318 1123
-16 271 964
22 218 744
22 217 740
22 216 735
21 207 702
21 206 698
20 205 692
20 205 691
25 243 816
25 242 810
22 220 736
22 219 732
22 218 728
23 227 754
22 226 750
22 225 746
22 224 741
21 214 708
21 213 704
20 213 700
20 212 696
22 230 753
22 229 749
22 228 744
22 227 740
23 240 781
22 234 760
22 233 755
-19 304 1021
-19 286 961
-19 285 954
-19 283 947
-19 282 940
-19 280 933
-21 354 1169
-20 308 1018
-21 332 1094
-20 320 1052
-20 318 1044
-20 316 1035
-19 299 979
-19 298 972
-19 296 964
-19 294 957
-19 293 950
-20 328 1063
-20 326 1054
-20 324 1046
-20 322 1038
-21 335 1077
-20 333 1068
-20 331 1059
-20 329 1050
-20 313 997
-20 311 990
-19 309 982
-19 307 975
-19 306 968
-19 304 960
-23 391 1230
-23 388 1219
-21 337 1057
-21 349 1092
-21 346 1083
-21 344 1074
-21 342 1065
-20 327 1016
-20 325 1008
-23 349 1083
-22 324 1003
-22 322 995
-21 320 988
-23 360 1108
-23 358 1099
-23 355 1090
-23 366 1120
-23 363 1111
-23 361 1101
-23 359 1092
-22 344 1046
-22 342 1037
-23 362 1098
-22 338 1021
-22 336 1013
-22 334 1005
-22 332 998
-22 330 990
-22 328 982
-13 119 361
8 179 434
-10 41 984
-10 41 976
-10 41 968
-10 41 960
-11 42 957
-6 52 597
-6 57 628
-6 57 625
-6 57 622
-6 58 619
-6 58 615
-6 58 612
-6 60 633
-6 60 630
-6 60 627
-6 58 600
-6 58 597
-6 58 594
-6 69 695
-6 69 691
-6 63 632
-6 63 628
-6 63 625
-6 63 622
-6 66 643
-6 66 640
-6 66 636
-6 63 609
-6 63 606
-6 64 603
-6 64 600
-6 69 647
-6 69 644
-6 69 640
-6 69 637
-6 69 633
-6 72 653
-6 72 650
-6 72 646
-6 69 620
-6 69 617
-6 73 649
-6 69 611
-6 101 881
-6 101 875
-6 82 712
-6 75 649
-6 75 645
-6 78 664
-6 78 660
-6 78 657
-6 75 632
-6 75 629
-7 80 664
-7 76 626
-7 76 623
-7 82 673
-7 82 670
-7 82 666
-7 87 698
-7 85 679
-7 85 676
-7 84 672
-7 82 648
-7 82 645
-7 82 642
-7 82 638
-7 82 635
-7 82 632
-7 97 748
-7 97 743
-7 89 675
-7 91 691
-7 91 687
-7 91 683
-7 88 661
-7 88 657
-7 88 654
-7 88 650
-7 88 647
-7 88 643
-4 95 682
-4 94 678
-4 94 675
-4 97 687
-4 96 683
-4 96 680
-4 94 660
-4 94 656
-4 94 653
-4 94 650
-4 93 646
-4 93 643
-4 93 639
-4 103 699
-4 103 695
-4 103 691
-4 103 687
-4 107 713
-4 107 708
-4 107 704
-4 107 700
-4 106 696
-4 106 693
-4 116 751
-4 116 747
-4 115 742
-4 110 706
-9 112 723
-9 112 719
-9 117 747
-9 117 743
-9 114 722
-9 116 734
-9 116 730
-9 116 725
-9 115 721
-9 139 866
-9 135 838
-9 132 812
-9 120 736
-9 119 732
-9 125 761
-9 124 756
-9 121 735
-9 124 747
-9 123 742
-9 123 738
-9 123 734
-9 122 729
-9 126 750
-9 126 745
-9 126 741
-9 115 676
-9 114 670
-5 112 651
-6 119 688
-4 118 677
3 113 638
4 122 687
2 105 587
2 105 584
13 91 489
29 159 848
3 121 668
3 121 665
3 121 661
3 120 658
18 112 589
3 120 651
27 155 809
27 155 804
27 154 799
27 154 794
26 153 789
26 153 784
26 152 779
26 152 774
25 151 769
25 151 765
20 127 644
18 117 595
18 117 592
18 117 589
18 117 586
17 117 583
17 116 581
17 116 578
16 111 553
18 120 591
18 120 590
18 120 588
17 119 585
17 119 580
18 121 590
17 121 587
17 121 584
17 120 581
10 125 609
10 124 606
10 124 603
9 122 589
9 121 587
5 123 599
4 114 555
11 138 660
18 132 622
19 132 617
18 127 592
18 126 589
14 128 602
13 129 601
6 133 630
6 133 627
6 138 648
6 138 644
6 137 641
6 137 638
6 137 634
6 139 645
7 147 679
7 147 675
6 141 646
6 140 642
-10 153 716
-10 152 712
-10 152 708
-10 158 735
-10 157 730
-10 157 726
-10 156 722
-10 156 718
-9 91 423
-10 169 770
-10 168 765
-10 160 728
-10 160 724
-10 159 720
-10 159 716
-10 158 712
-10 165 739
-10 164 734
-10 164 730
-10 163 726
-10 163 722
-10 162 718
-11 177 779
-11 176 774
-10 168 736
-12 169 738
-10 167 728
-11 170 740
-12 174 757
-12 166 721
-12 173 748
-12 173 744
-12 172 740
-11 170 730
-12 171 731
-10 160 683
17 154 626
-2 167 698
-12 193 812
-12 192 807
-12 191 802
-12 190 797
-12 194 811
-12 193 806
-12 193 801
-12 197 815
-12 196 810
-12 195 804
-12 194 799
-11 183 750
-10 182 743
-10 181 739
-10 199 807
-10 198 802
-11 198 800
-11 197 795
-11 201 809
-11 200 804
-14 197 793
-14 222 891
-14 221 885
-14 220 879
-14 219 873
-15 224 889
-14 223 883
-15 228 900
-15 227 893
-14 225 883
-13 213 835
-15 259 1012
-14 230 895
-14 233 905
-16 233 907
-10 69 274
-16 243 936
-16 241 929
-15 228 876
-15 227 870
-16 248 947
-16 250 953
-16 249 946
-16 247 939
-16 246 932
-16 245 926
-14 242 910
-16 249 937
-16 238 894
21 193 694
20 203 731
20 203 727
-14 247 920
-16 248 922
-15 231 858
0 212 771
-16 257 945
-16 255 938
-16 254 931
-16 253 925
-16 259 943
-16 257 936
-16 263 955
-16 262 948
-16 260 941
-16 245 886
-4 230 820
-15 240 863
-16 241 865
-6 323 1142
-17 340 1210
-17 274 975
-18 280 996
-17 277 983
-9 264 929
21 207 703
21 206 699
20 205 693
26 244 822
25 243 817
25 242 812
22 220 737
22 219 733
22 218 729
23 227 756
23 226 751
22 225 747
22 224 742
21 214 709
21 214 705
21 213 701
20 212 697
23 230 754
22 229 750
22 228 746
22 227 741
24 241 782
23 234 761
23 234 757
22 233 752
21 223 720
21 222 716
21 221 712
21 221 708
20 220 705
-19 311 1028
-19 309 1020
-20 323 1063
-20 321 1055
-20 319 1046
-20 317 1038
-19 300 981
-19 298 974
-19 296 966
-19 295 959
-19 293 952
-20 329 1065
-20 327 1057
-20 325 1048
-20 323 1040
-20 336 1079
-20 334 1070
-20 332 1061
-20 329 1053
-19 313 999
-19 311 992
-19 310 984
-19 308 977
-19 306 969
-19 304 962
-22 392 1233
-22 389 1222
-20 337 1060
-21 349 1095
-21 347 1085
-21 345 1076
-20 342 1067
-20 327 1018
-20 325 1010
-20 323 1002
-20 321 995
-20 319 987
-19 318 980
-21 357 1098
-21 354 1089
-21 352 1079
-21 363 1109
-21 360 1100
-21 358 1091
-21 355 1082
-20 341 1036
-22 342 1040
-22 340 1031
-22 338 1023
-22 336 1015
-22 334 1007
-22 332 1000
-22 330 992
-21 328 984
-13 119 361
8 179 434
-10 41 986
-10 41 978
-10 41 970
-10 41 967
-10 42 959
-4 52 590
-4 52 587
-4 57 621
-6 57 626
-6 57 623
-6 58 619
-6 58 616
-6 58 613
-6 60 634
-6 60 631
-6 60 627
-6 58 601
-6 58 598
-6 58 595
-6 69 696
-6 69 692
-6 63 632
-6 63 629
-6 63 626
-6 63 623
-6 66 644
-6 66 641
-6 66 637
-6 63 610
-6 64 607
-6 64 604
-6 64 601
-6 69 648
-6 69 644
-6 69 641
-6 69 638
-6 69 634
-6 72 654
-6 72 651
-6 72 647
-6 69 621
-6 69 618
-6 73 650
-6 69 612
-6 102 883
-6 101 876
-6 75 653
-6 75 650
-6 75 646
-6 78 665
-6 78 661
-6 78 658
-6 75 633
-6 75 630
-6 80 660
-6 75 623
-6 75 620
-6 82 670
-6 82 666
-6 82 662
-6 86 694
-6 84 676
-6 84 672
-6 84 668
-6 82 645
-6 82 641
-7 82 642
-7 82 639
-7 82 636
-7 82 632
-7 98 749
-7 97 744
-7 93 710
-7 91 691
-7 91 688
-7 91 684
-7 88 662
-7 88 658
-7 88 655
-7 88 651
-7 88 648
-7 88 644
-7 96 698
-7 96 694
-7 96 690
-7 98 703
-7 98 699
-7 98 695
-7 95 675
-7 95 671
-7 95 667
-7 95 664
-7 95 660
-7 95 657
-6 94 649
-4 103 700
-4 103 696
-4 103 692
-4 103 688
-4 107 714
-4 107 709
-4 107 705
-4 107 701
-4 107 697
-4 106 693
-4 116 752
-4 116 748
-4 110 711
-4 110 707
-4 110 703
-4 110 699
-4 114 726
-4 114 722
-4 114 717
-4 114 713
-4 114 709
-4 113 705
-4 113 701
-3 136 837
-3 136 832
-4 129 787
-4 117 715
-4 117 711
-9 125 762
-9 124 757
-9 121 736
-9 124 748
-9 123 743
-9 123 739
-9 123 735
-9 123 730
-9 126 751
-9 126 746
-9 127 750
-9 127 746
-9 127 741
-9 115 670
-6 113 653
-6 116 671
-6 116 668
3 113 635
3 113 632
3 113 629
4 122 676
4 122 673
4 121 669
3 119 653
3 121 662
3 121 659
28 156 821
18 112 587
18 111 584
27 155 805
27 154 800
27 154 795
27 153 790
26 153 785
26 152 780
26 152 775
26 151 770
26 151 766
20 127 644
20 127 641
18 117 593
18 117 590
18 117 587
18 117 584
17 117 581
17 112 559
16 112 554
18 120 592
18 120 589
18 120 588
18 119 584
17 119 581
18 121 590
17 121 589
18 121 585
17 121 582
10 125 609
17 120 577
9 122 593
9 122 590
9 121 587
9 121 585
8 113 542
19 133 626
19 132 623
19 132 618
18 127 593
18 127 590
11 131 618
11 131 615
6 133 631
10 131 611
11 135 629
11 135 626
7 137 640
7 137 636
14 131 601
7 139 644
7 147 680
7 147 676
7 141 647
6 140 643
6 140 640
-10 152 713
-10 152 709
-10 158 736
-10 158 731
-10 157 727
-10 157 723
-10 156 719
-9 91 423
-10 169 771
-10 168 767
-10 161 729
-10 160 725
-10 160 721
-10 159 717
-10 159 713
-10 165 740
-10 165 735
-10 164 731
-10 164 727
-10 163 723
-10 163 719
-10 177 780
-10 177 776
-10 168 737
-10 168 733
-10 167 729
-10 167 725
-10 166 721
-10 166 717
-10 172 744
-10 172 739
-10 171 735
-10 171 731
-10 170 727
9 174 722
32 229 927
2 163 680
-12 175 742
-12 193 814
-12 192 809
-12 191 803
-12 191 798
-12 194 812
-12 194 807
-12 193 802
-12 197 816
-12 196 811
-12 195 806
-12 185 762
-12 184 757
-12 184 753
-14 275 1118
-12 201 818
-12 200 813
-12 199 808
-12 198 803
-12 202 817
-10 220 884
-14 224 899
-14 223 892
-14 222 886
-14 221 880
-13 219 870
-14 223 886
-14 223 884
-14 228 901
-14 227 895
-14 226 889
-13 213 836
-15 261 1019
-14 231 901
-15 262 1018
-14 233 904
-12 254 982
-11 227 875
-14 241 929
-14 240 922
-14 226 869
-14 225 863
-14 246 940
-14 248 945
-14 247 939
-14 246 932
-14 244 925
-16 245 927
-14 242 912
-14 241 905
-9 234 875
20 200 721
19 205 738
-16 251 937
-16 250 930
-15 236 876
-15 232 860
-15 231 854
-16 257 947
-16 256 940
-16 255 933
-16 253 926
-16 259 945
-16 258 938
-16 263 957
-16 262 950
-16 261 943
-15 246 888
-4 229 815
-16 242 872
27 258 890
-17 276 985
-17 274 977
-17 279 993
-16 278 985
-16 276 978
-16 260 919
-14 257 904
-14 255 897
-5 303 1054
-5 302 1046
-5 300 1037
22 220 738
22 219 734
22 219 730
23 227 757
23 226 752
23 225 748
23 224 744
21 215 710
21 214 706
21 213 702
23 231 760
23 230 756
23 229 751
22 229 747
22 228 742
24 241 784
23 235 762
23 234 758
23 233 753
21 223 722
21 223 717
21 222 713
21 221 710
21 220 706
32 321 1024
32 319 1016
22 237 755
22 236 750
23 243 772
23 242 767
23 241 763
23 240 758
21 231 729
21 230 725
23 242 761
21 229 717
21 228 713
23 247 771
23 246 766
-20 325 1050
-20 323 1042
-20 336 1081
-20 334 1072
-20 332 1063
-20 330 1055
-19 314 1001
-19 312 994
-19 310 986
-19 308 979
-19 307 971
-22 396 1248
-22 392 1236
-22 389 1225
-20 338 1062
-20 350 1097
-20 348 1088
-20 345 1079
-20 343 1070
-20 328 1020
-19 326 1012
-19 324 1004
-19 322 997
-19 320 989
-19 318 981
-21 358 1100
-21 355 1091
-20 353 1082
-21 363 1112
-21 361 1102
-21 358 1093
-21 356 1084
-20 342 1039
-20 340 1030
-21 360 1090
-20 335 1014
-20 333 1006
-20 332 999
-20 330 991
-21 331 994
-21 329 986
-13 119 362
8 180 435
-9 41 980
-9 41 972
-10 41 969
-10 42 961
-4 52 591
-4 52 588
-4 57 622
-4 57 618
-4 57 615
-4 57 612
-4 57 609
-4 60 630
-4 60 627
-4 60 623
-4 60 620
-4 58 594
-4 58 591
-4 58 588
-3 68 687
-3 68 683
-4 63 625
-6 63 630
-6 63 627
-6 66 648
-6 66 645
-6 66 641
-6 66 638
-6 63 611
-6 64 608
-6 64 605
-6 69 652
-6 69 649
-6 69 645
-6 69 642
-6 69 638
-6 73 672
-6 72 655
-6 72 652
-6 72 648
-6 69 622
-6 69 619
-6 73 651
-6 69 613
-5 102 884
-5 101 878
-6 75 654
-6 75 651
-6 75 647
-6 78 666
-6 78 662
-6 78 658
-6 75 634
-6 75 630
-6 80 661
-6 75 624
-6 75 621
-6 82 670
-6 82 667
-6 82 663
-6 86 695
-6 84 676
-6 84 673
-6 84 669
-6 82 646
-6 82 642
-6 82 639
-6 82 636
-6 81 632
-6 97 749
-6 97 744
-6 97 740
-6 93 706
-6 91 688
-6 91 684
-6 91 680
-6 88 658
-7 88 659
-7 88 655
-7 88 652
-7 88 648
-7 88 645
-7 96 699
-7 96 695
-7 100 724
-7 98 704
-7 98 700
-7 98 696
-7 95 676
-7 95 672
-7 95 668
-7 95 665
-7 95 661
-7 95 657
-7 95 654
-7 105 716
-7 105 712
-7 105 708
-7 104 704
-7 109 731
-7 109 726
-7 109 722
-7 108 718
-7 108 714
-4 106 694
-3 116 753
-3 116 749
-4 111 712
-4 110 708
-4 110 704
-4 110 700
-4 115 727
-4 114 723
-4 114 718
-4 114 714
-4 114 710
-4 113 706
-4 113 702
-3 136 839
-3 136 833
-4 117 720
-4 117 716
-4 117 712
-4 122 739
-4 122 735
-4 119 715
-4 121 726
-4 121 722
-4 121 718
-4 120 714
-4 120 710
-4 124 729
-4 125 733
-4 125 728
-9 127 747
-9 127 742
-9 125 730
-9 68 403
-6 112 647
-5 112 641
-4 117 668
3 113 630
4 122 677
4 122 674
0 93 517
4 121 666
4 121 663
4 121 659
18 112 591
3 120 653
18 111 585
18 111 582
27 154 801
18 111 577
27 153 791
27 153 786
26 152 781
26 152 776
26 151 772
26 151 767
26 151 762
25 150 758
20 127 639
20 126 635
18 117 588
18 117 585
17 115 572
17 112 557
18 120 596
18 120 593
18 120 590
18 120 589
17 119 586
17 119 584
18 122 593
17 121 590
17 121 587
18 121 583
18 123 590
10 125 609
10 122 594
10 122 591
9 122 588
8 113 545
12 139 665
19 133 627
19 132 624
19 132 621
18 127 596
17 127 593
18 126 588
11 131 616
11 131 613
11 135 633
11 135 630
18 130 595
11 134 624
11 134 620
16 122 557
19 138 627
19 138 624
19 138 621
7 140 645
7 140 644
7 140 641
6 140 638
-10 152 710
-10 158 737
-10 158 732
-10 157 728
-10 157 724
-9 109 507
-10 169 772
-10 161 734
-10 161 730
-10 160 726
-10 160 722
-10 159 718
-10 166 745
-10 165 741
-10 165 736
-10 164 732
-10 164 728
-10 163 724
-10 163 720
-10 177 782
-10 177 777
-10 168 738
-10 168 734
-10 167 730
-10 167 726
-10 166 722
-10 173 749
-10 173 745
-10 172 741
-10 171 736
-10 171 732
-10 162 691
16 167 684
31 231 938
-11 175 744
-11 192 814
-11 192 812
-11 192 806
-11 191 801
-11 195 815
-11 194 810
-12 194 808
-12 193 803
-12 197 817
-12 196 812
-12 196 807
-12 185 763
-12 185 759
-12 184 754
-12 202 825
-12 201 820
-12 200 814
-12 200 809
-12 199 804
-11 197 796
-13 219 883
-13 223 896
-13 222 890
-13 221 884
-13 220 878
-13 231 918
-13 224 888
-13 229 905
-13 228 899
-14 227 897
-13 225 886
-13 213 837
-14 260 1016
-13 230 898
-14 234 912
-15 261 1012
-12 255 984
-15 244 942
-14 241 931
-14 240 924
-13 227 871
-13 226 865
-14 246 941
-14 249 947
-14 247 940
-14 246 933
-14 245 927
-14 244 920
-14 239 902
-11 250 939
9 210 770
-14 245 918
-15 252 941
-15 250 934
-15 249 927
-13 234 870
-14 231 857
-14 255 939
-16 256 942
-16 255 935
-16 254 928
-16 259 947
-16 258 940
-16 264 959
-16 262 952
-16 261 945
-15 246 889
-15 243 876
27 253 872
-17 269 962
-16 275 982
-16 273 974
-16 280 995
-16 278 987
-16 277 980
-16 260 920
-16 259 914
-16 258 907
-18 326 1144
-18 324 1134
-18 322 1124
-16 282 983
-16 280 975
-16 279 968
-17 294 1017
-17 292 1009
-17 290 1001
-8 262 896
-5 256 874
-5 255 868
-5 254 862
23 232 761
23 231 757
23 230 752
23 229 748
23 228 744
24 241 785
23 235 764
23 234 759
23 233 755
22 224 723
21 223 719
21 222 715
21 221 711
33 323 1035
33 321 1027
32 320 1018
23 237 756
23 236 751
23 244 773
23 243 769
23 242 764
23 241 760
22 232 730
21 231 726
23 243 762
21 229 718
21 228 714
23 247 772
23 246 767
23 245 763
22 244 758
23 251 777
23 250 773
23 249 768
23 248 764
22 239 737
-19 313 996
-20 334 1063
-19 309 981
-19 307 973
-22 396 1251
-22 393 1239
-22 390 1228
-20 339 1064
-20 351 1099
-20 348 1090
-20 346 1081
-20 344 1072
-19 328 1022
-19 326 1014
-19 324 1006
-19 322 998
-19 321 991
-19 319 983
-20 358 1103
-20 356 1093
-20 353 1084
-21 364 1114
-20 362 1105
-20 359 1095
-20 344 1049
-20 342 1041
-20 340 1032
-20 338 1024
-20 336 1016
-19 334 1008
-19 332 1001
-19 330 993
-19 328 985
-22 331 993
-13 119 362
8 180 435
-10 41 995
-10 41 987
-10 41 979
-10 41 971
-5 52 595
-5 53 592
-3 57 626
-3 57 622
-4 57 619
-4 57 616
-4 57 613
-4 57 610
-3 60 631
-3 60 627
-4 60 624
-4 60 621
-4 58 595
-4 58 592
-4 58 589
-3 68 688
-3 71 712
-4 63 626
-4 63 622
-4 63 619
-3 66 640
-3 66 637
-4 66 634
-4 66 630
-4 63 604
-4 63 601
-4 63 598
-3 69 644
-3 69 641
-4 69 637
-4 69 634
-6 69 639
-6 74 673
-6 72 656
-6 72 652
-6 72 649
-6 69 623
-6 69 620
-6 73 651
-6 69 613
-5 102 886
-5 102 879
-6 76 655
-6 76 651
-6 80 684
-6 78 666
-6 78 663
-6 78 659
-6 75 634
-6 75 631
-6 80 662
-6 75 625
-6 75 621
-6 82 671
-6 82 668
-6 82 664
-6 86 696
-6 84 677
-6 84 674
-6 84 670
-6 82 646
-6 82 643
-6 86 673
-6 82 636
-6 82 633
-6 97 750
-6 97 745
-6 97 741
-6 93 707
-6 91 688
-6 91 685
-6 91 681
-6 88 659
-6 88 655
-6 88 652
-6 88 648
-6 88 645
-6 88 642
-6 96 695
-6 96 691
-6 100 719
-6 98 700
-6 98 696
-6 97 692
-6 95 672
-6 95 668
-6 99 695
-7 95 665
-7 95 662
-7 95 658
-7 95 655
-7 105 717
-7 105 713
-7 105 709
-7 109 736
-7 109 732
-7 107 712
-7 109 723
-7 108 719
-7 108 715
-7 108 711
-7 118 772
-7 118 768
-7 112 729
-7 112 725
-7 112 721
-7 112 717
-7 117 745
-6 116 735
-3 114 719
-4 114 715
-4 114 711
-4 114 707
-4 113 703
-3 136 840
-3 136 834
-4 118 721
-4 117 717
-4 117 713
-3 122 740
-3 122 736
-3 122 732
-4 121 727
-4 121 723
-4 121 719
-4 120 715
-4 120 711
-4 124 730
-4 125 734
-4 125 729
-4 124 725
-4 124 721
-4 124 717
-10 68 407
-6 112 644
-5 112 639
3 107 600
4 122 678
4 122 675
2 104 578
4 121 667
4 121 664
4 121 660
18 112 591
4 120 653
18 112 586
18 111 583
18 111 580
18 111 578
18 111 575
17 111 572
27 153 783
27 152 778
26 152 773
26 151 768
26 151 763
17 110 557
17 110 554
17 109 552
25 149 745
25 148 741
17 115 573
19 123 612
18 120 596
18 120 593
18 120 593
18 120 590
18 119 585
18 122 596
18 121 592
18 121 591
18 121 588
18 123 596
18 123 593
17 121 580
10 122 594
10 122 591
16 117 561
15 109 522
12 139 666
19 133 628
19 133 624
19 132 621
18 127 596
18 127 593
18 126 589
18 126 586
10 131 616
11 135 634
18 130 599
18 130 596
18 130 593
18 129 590
18 129 587
20 139 628
19 139 627
19 138 624
11 138 631
11 138 628
11 138 625
10 137 622
-10 152 711
-10 158 738
-10 158 733
-10 157 729
-10 157 725
-6 90 418
-10 169 774
-10 161 735
-10 161 731
-9 160 724
-9 159 720
-9 159 716
-10 166 746
-10 166 742
-10 165 738
-10 164 733
-10 164 729
-10 163 725
-10 178 788
-10 178 783
-10 177 778
-10 169 740
-9 168 732
-10 167 731
-10 167 727
-10 166 723
-10 173 750
-10 173 746
-10 172 742
-10 172 737
-5 158 673
37 259 1050
-9 175 744
-11 176 745
-11 193 815
-11 193 813
-11 192 808
-11 191 803
-11 195 817
-11 194 811
-11 194 806
-11 193 801
-11 197 815
-11 196 810
-11 195 805
-11 185 761
-11 184 757
-11 184 752
-11 201 823
-11 201 818
-11 200 812
-12 200 811
-11 198 802
-10 217 875
-10 216 869
-13 223 898
-13 222 891
-13 221 885
-13 220 879
-13 231 920
-13 224 890
-13 229 907
-13 228 900
-13 227 894
-13 226 888
-13 209 822
-14 260 1018
-13 231 900
-13 234 909
-17 263 1025
-14 232 901
-13 243 939
-13 242 932
-13 240 925
-13 227 872
-14 252 963
-14 247 943
-14 245 936
-14 248 942
-14 246 935
-13 242 916
-14 242 914
-13 243 915
-14 239 901
-13 240 902
-14 247 924
-14 252 943
-14 251 936
-14 250 929
-14 248 922
-14 232 859
-14 255 934
-14 254 932
-15 260 951
-15 259 944
-14 256 932
-14 262 951
-14 261 944
-15 261 946
-8 326 1168
-6 320 1143
-12 265 947
-16 277 991
-16 275 984
-16 274 976
-16 280 997
-16 279 989
-16 277 981
-15 261 922
-15 259 915
-15 258 909
-17 327 1147
-17 325 1137
-17 323 1127
-16 282 985
-16 281 977
-17 305 1059
-16 294 1019
-16 292 1011
-16 291 1003
-16 273 941
-16 272 935
-16 270 928
-16 269 921
-17 301 1028
-17 299 1020
-16 297 1012
-16 296 1004
-16 294 996
-17 299 1012
-15 304 1023
-11 296 994
-5 284 948
-5 269 896
-5 268 890
-5 287 953
-5 265 878
33 324 1037
33 322 1029
33 320 1021
23 237 757
23 237 752
24 244 775
23 243 770
23 242 765
23 241 761
22 232 731
22 231 727
23 243 763
21 229 719
21 228 715
23 248 773
23 247 769
23 246 764
23 245 759
23 251 779
23 250 774
23 249 769
23 248 765
22 240 738
22 239 733
23 250 767
21 237 725
21 236 721
26 280 852
26 278 846
25 277 841
24 265 803
23 258 782
23 257 777
23 256 773
22 248 748
22 247 743
21 246 739
-19 325 1008
-19 323 1000
-19 321 993
-19 319 985
-20 359 1105
-20 356 1096
-21 379 1163
-20 365 1117
-20 362 1107
-20 360 1098
-20 345 1051
-19 343 1043
-19 341 1034
-19 339 1026
-19 337 1018
-19 335 1010
-19 333 1003
-19 331 995
-19 329 987
-13 138 417
8 180 436
-8 41 987
-7 41 974
-8 41 971
-8 41 963
-4 52 596
-4 53 593
-4 57 631
-4 57 627
-4 57 624
-4 57 621
-4 57 618
-4 58 614
-3 59 619
-3 60 628
-3 60 625
-3 60 622
-4 58 595
-4 58 592
-4 58 590
-3 69 689
-3 69 685
-3 63 626
-3 63 623
-3 63 620
-3 66 641
-3 66 638
-3 66 635
-3 66 631
-4 63 604
-4 63 601
-4 63 598
-3 69 645
-3 69 642
-3 69 638
-3 69 635
-3 69 632
-3 70 639
-3 72 648
-3 72 645
-3 72 641
-3 69 616
-4 69 612
-3 73 644
-4 69 606
-2 101 871
-5 102 881
-5 76 656
-5 76 652
-5 77 657
-5 78 667
-5 78 664
-5 78 660
-6 75 635
-6 75 632
-5 80 663
-6 75 625
-5 82 676
-5 82 672
-5 82 669
-5 82 665
-5 86 696
-5 85 678
-5 84 674
-5 84 671
-6 82 647
-6 82 644
-6 86 673
-6 82 637
-6 82 634
-5 98 751
-5 97 746
-5 97 742
-5 93 708
-5 91 689
-6 91 685
-6 91 682
-6 88 660
-6 88 656
-6 88 653
-6 88 649
-6 88 646
-6 88 642
-6 96 695
-6 96 692
-5 100 720
-6 98 701
-6 98 697
-6 97 693
-6 95 673
-6 95 669
-6 99 696
-6 95 662
-6 95 658
-6 94 655
-6 105 713
-6 105 709
-6 104 705
-6 109 732
-7 109 733
-7 107 713
-7 109 724
-7 109 720
-7 108 716
-7 108 712
-7 118 774
-7 118 769
-7 112 730
-7 112 726
-7 112 722
-7 112 718
-7 117 746
-7 116 741
-7 116 737
-7 116 732
-7 116 728
-7 115 724
-7 115 720
-7 139 864
-7 132 816
-4 118 728
-5 118 724
-5 118 719
-4 123 747
-3 122 737
-3 122 733
-3 121 729
-3 121 724
-3 121 720
-3 121 716
-3 120 712
-3 124 731
-3 125 735
-3 125 731
-3 125 726
-3 130 755
-7 132 768
-8 114 664
-5 112 639
-4 121 683
4 117 649
4 117 646
4 121 668
2 104 573
4 121 661
4 121 658
18 112 589
18 112 586
18 111 584
18 111 581
18 111 578
18 111 576
18 111 573
18 111 570
27 152 779
27 152 774
26 151 769
17 110 560
17 110 557
17 110 555
17 109 552
25 149 746
25 149 742
20 123 616
19 123 613
19 120 597
19 120 594
18 120 593
19 124 612
19 122 598
19 122 595
18 121 592
18 122 591
17 122 592
18 123 596
17 121 583
17 121 580
10 122 595
17 118 564
17 118 561
12 139 671
12 139 667
19 133 628
19 133 625
12 138 657
11 138 658
10 133 630
18 127 589
11 131 620
11 131 616
11 136 637
18 130 601
18 130 598
11 135 627
18 130 593
18 129 588
19 140 635
11 145 668
12 144 660
11 138 632
11 138 629
11 138 626
11 137 622
11 142 643
-5 155 717
-6 155 718
-6 155 714
-5 153 705
-6 90 418
-5 165 750
-5 158 715
-5 157 711
-5 157 707
-5 156 703
-9 160 720
-10 166 747
-10 166 743
-10 165 739
-10 165 734
-10 164 730
-10 164 726
-10 178 789
-10 178 784
-10 169 745
-10 169 741
-9 168 734
-10 168 732
-10 167 728
-9 166 721
-10 174 751
-10 173 747
-9 172 740
-4 159 678
36 247 1008
38 262 1068
-4 181 765
-9 175 745
-9 175 741
-9 197 832
-11 193 814
-11 192 809
-11 191 804
-11 195 818
-11 195 813
-11 194 808
-11 188 781
-11 197 817
-11 196 811
-11 195 806
-11 185 762
-11 184 758
-11 184 753
-11 202 824
-11 201 819
-11 200 814
-11 199 808
-11 199 803
-12 220 888
-12 219 882
-10 216 864
-10 219 877
-10 218 871
-10 217 865
-10 228 904
-10 221 875
-10 226 892
-10 225 885
-10 224 879
-10 223 873
-10 207 809
-14 261 1020
-13 231 902
-11 149 584
-14 260 1011
-13 244 948
-13 243 941
-13 242 934
-13 241 927
-13 227 874
-13 252 965
-13 247 945
-13 246 938
-13 245 931
-13 243 924
-13 219 829
-14 242 915
-13 243 917
-7 234 877
-10 234 876
-13 246 921
-13 238 891
-13 250 933
-13 249 926
-13 235 873
-13 231 856
-14 257 947
-14 256 940
-14 255 934
-15 268 979
-14 259 945
-14 258 939
-14 264 958
-14 262 950
-14 254 918
11 335 1183
-11 267 956
-15 270 968
-14 267 956
-14 273 976
-14 280 996
-14 278 988
-14 277 981
-14 275 974
-14 259 915
-14 258 909
-14 256 902
-15 324 1136
-15 322 1126
-15 320 1116
-16 283 987
-16 281 979
-16 305 1061
-16 295 1021
-16 293 1013
-16 291 1005
-15 274 943
-15 272 936
-15 271 930
-15 269 923
-16 301 1030
-16 300 1022
-16 298 1014
-16 296 1006
-16 294 998
-16 300 1014
-16 307 1036
-16 305 1028
-16 303 1020
-16 286 961
-16 285 954
-16 307 1026
-16 282 940
-17 310 1025
-16 308 1017
-17 322 1060
-15 317 1040
-15 315 1032
-8 301 982
-8 286 931
-5 280 907
-5 299 967
14 244 773
21 229 716
24 248 774
23 247 770
23 246 765
23 245 761
24 252 780
24 251 775
23 250 771
23 249 766
22 240 739
22 239 735
22 238 730
22 237 726
21 236 722
26 280 853
26 279 848
26 277 842
24 265 805
23 259 783
23 258 778
23 257 774
22 249 749
22 248 745
22 247 740
22 246 736
21 245 732
21 244 728
21 243 724
23 263 781
23 262 776
-20 357 1094
-20 365 1119
-20 363 1110
-20 361 1100
-19 346 1053
-19 344 1045
-19 341 1037
-19 339 1028
-19 337 1020
-19 335 1012
-19 333 1005
-19 331 997
-19 329 989
-12 119 362
8 180 436
-8 41 988
-7 41 975
-7 41 967
-8 41 964
-4 52 600
-4 52 597
-4 53 594
-4 57 631
-4 57 628
-4 57 625
-4 57 622
-4 58 618
-4 58 615
-4 60 636
-4 60 633
-4 60 630
-4 60 626
-4 58 600
-4 58 597
-4 58 594
-4 69 695
-4 69 691
-3 63 627
-3 63 624
-3 63 621
-3 66 642
-3 66 639
-3 66 635
-3 66 632
-3 63 605
-3 63 602
-3 63 599
-3 69 646
-3 69 642
-3 69 639
-3 69 636
-3 69 632
-3 72 652
-3 72 649
-3 72 645
-3 72 642
-3 69 616
-3 69 613
-3 73 644
-3 69 607
-2 101 873
-2 101 867
-3 75 648
-3 75 644
-3 76 649
-3 78 659
-3 78 656
-3 78 652
-3 75 628
-3 75 624
-3 79 655
-5 75 626
-5 82 677
-5 82 673
-5 82 669
-5 82 666
-5 83 669
-5 85 679
-5 85 675
-5 84 672
-5 82 648
-5 82 645
-5 86 674
-5 82 638
-5 82 635
-5 98 752
-5 97 747
-5 89 679
-5 91 694
-5 91 690
-5 91 686
-5 91 683
-5 88 661
-5 88 657
-5 93 685
-5 88 650
-5 88 647
-5 88 643
-5 96 696
-5 96 692
-5 100 721
-5 98 702
-5 98 698
-5 98 694
-5 95 674
-5 95 670
-5 99 697
-5 95 663
-5 95 659
-5 94 656
-5 147 998
-5 105 714
-5 105 710
-5 104 706
-5 109 733
-5 109 728
-5 106 709
-5 108 720
-5 108 716
-5 108 712
-5 108 707
-5 118 769
-5 117 764
-5 112 726
-5 112 722
-5 112 718
-7 112 719
-7 117 747
-7 117 742
-7 116 738
-7 116 733
-7 116 729
-7 115 725
-7 115 721
-7 139 865
-7 132 817
-7 120 740
-7 119 736
-7 119 731
-7 124 760
-7 124 756
-7 124 751
-7 124 746
-7 123 742
-7 123 738
-7 123 733
-7 134 799
-7 126 749
-7 127 753
-7 127 749
-7 127 744
-7 132 774
-7 132 769
-7 125 726
-7 124 722
-5 112 636
-5 122 687
3 116 643
4 116 637
4 121 666
4 121 662
4 121 659
19 112 590
19 112 587
18 112 584
18 111 582
18 111 579
18 111 576
18 111 574
18 111 571
18 111 568
27 152 775
27 152 770
17 110 561
17 110 558
17 110 556
17 110 553
17 109 551
25 149 743
16 107 537
16 107 535
19 121 600
19 120 597
13 93 461
20 125 613
19 122 599
19 122 596
19 122 593
18 121 590
17 122 593
19 123 595
17 121 588
17 119 571
17 118 569
16 118 568
16 118 565
12 140 676
11 140 673
9 141 679
9 141 675
9 140 671
9 140 668
8 134 639
18 127 594
10 132 624
10 132 621
9 138 651
8 138 647
8 137 644
10 136 632
10 135 629
10 135 626
9 147 682
9 147 678
8 141 649
8 140 646
8 140 642
8 140 639
8 139 636
9 145 657
9 144 654
-8 157 730
-8 157 726
-8 117 543
-6 167 757
-6 159 721
-6 158 717
-6 158 713
-6 157 709
-6 157 705
-6 163 731
-6 163 727
-5 161 718
-6 162 719
-6 161 715
-5 160 706
-4 174 765
-4 173 760
-5 165 724
-5 165 719
-5 164 715
-5 164 711
-9 167 729
-9 174 754
-4 169 727
-4 168 723
-4 168 719
37 249 1019
39 263 1073
-10 187 800
-10 186 795
-10 176 749
-10 175 745
-10 198 837
-10 192 812
-10 192 807
-10 191 802
-10 195 816
-10 194 811
-9 193 802
-9 197 816
-9 196 811
-9 195 806
-9 185 762
-9 184 758
-10 185 759
-10 184 754
-11 202 825
-11 201 820
-11 200 815
-11 200 810
-11 199 805
-12 220 890
-12 219 884
-12 218 877
-12 222 890
-10 219 876
-10 218 870
-12 231 919
-12 224 889
-12 229 906
-12 228 899
-12 227 893
-12 226 887
-11 209 821
-12 231 905
-11 229 895
-10 152 593
-13 245 950
-10 240 925
-10 238 918
-10 237 911
-10 224 860
-13 252 967
-13 247 947
-13 246 940
-12 220 838
-12 219 833
-13 246 932
-13 245 925
-13 243 918
-13 256 963
-13 238 894
-13 246 923
-13 252 942
-13 251 935
-13 249 928
-13 235 875
-13 231 858
-13 256 943
-13 257 945
-13 255 938
-13 254 931
-13 253 924
-14 250 914
-14 258 940
-14 264 959
-14 263 952
-7 309 1108
-3 333 1191
-11 269 965
-14 272 977
-14 270 970
-14 269 962
-14 274 977
-14 280 998
-14 279 990
-14 277 983
-13 261 923
-13 259 917
-13 258 910
-13 257 904
-15 325 1138
-15 323 1128
-14 282 986
-14 281 979
-14 279 971
-14 278 964
-14 292 1013
-14 291 1005
-14 289 997
-14 272 936
-14 270 929
-14 269 922
-14 267 916
-14 299 1021
-14 297 1013
-14 296 1005
-16 297 1008
-16 295 1000
-16 300 1016
-16 308 1039
-16 306 1030
-16 304 1022
-16 287 962
-16 285 955
-16 307 1028
-15 282 941
-16 310 1027
-16 309 1019
-17 322 1063
-17 320 1054
-16 318 1045
-16 316 1037
-16 300 980
-16 298 973
-16 296 966
-16 295 959
-16 293 952
-17 329 1065
-17 327 1056
-17 325 1047
-17 323 1039
-15 332 1066
-8 317 1012
-5 310 983
-5 308 976
5 274 861
22 239 736
22 238 732
22 238 727
22 237 723
26 280 855
26 279 849
26 278 844
24 266 806
24 259 785
23 258 780
23 257 775
22 249 750
22 248 746
22 247 741
22 246 737
22 245 733
21 244 729
23 264 787
23 263 782
23 262 778
23 262 776
23 266 787
23 265 782
23 264 777
22 256 755
22 255 750
22 254 746
22 253 742
-19 338 1022
-19 336 1014
-19 334 1007
-19 332 999
-18 330 991
-12 119 362
9 180 436
-7 41 990
-7 41 982
-7 41 969
-7 41 966
-4 52 600
-4 52 597
-4 53 595
-4 57 632
-4 57 629
-4 57 626
-4 57 622
-4 58 619
-4 58 616
-4 60 637
-4 60 634
-4 60 630
-4 60 627
-4 58 601
-4 58 598
-4 58 595
-4 69 696
-4 69 692
-4 63 632
-4 63 629
-4 63 625
-4 66 647
-4 66 644
-4 66 640
-4 66 637
-4 63 610
-4 63 607
-4 64 604
-4 69 651
-3 69 643
-3 69 640
-3 69 636
-3 69 633
-3 72 653
-3 72 650
-3 72 646
-3 72 643
-3 69 617
-3 69 614
-3 69 611
-3 69 608
-1 101 874
-1 101 868
-3 75 649
-3 75 645
-3 78 664
-3 78 660
-3 78 656
-3 78 653
-3 75 628
-3 75 625
-3 79 655
-3 75 619
-3 82 668
-3 82 665
-3 82 661
-3 81 658
-3 84 674
-3 84 671
-3 84 667
-3 84 663
-3 81 640
-3 81 637
-5 86 675
-5 82 639
-5 82 635
-5 98 753
-5 98 748
-5 89 680
-5 91 695
-5 91 691
-5 91 687
-5 91 683
-5 88 661
-5 88 658
-5 93 686
-5 88 651
-5 88 647
-5 88 644
-5 96 697
-5 96 693
-5 96 692
-5 98 703
-5 98 699
-5 98 695
-5 95 674
-5 95 671
-5 99 698
-5 95 663
-5 95 660
-5 95 656
-5 118 806
-5 105 715
-5 105 711
-5 105 707
-5 109 734
-5 109 729
-5 106 709
-5 108 721
-5 108 717
-5 108 712
-5 108 708
-5 118 770
-5 118 765
-5 112 727
-5 112 723
-5 112 719
-5 117 747
-5 116 742
-5 116 738
-5 116 733
-5 115 729
-5 115 725
-5 115 721
-5 115 716
-5 139 859
-5 131 812
-5 119 735
-6 120 737
-6 125 766
-6 125 761
-6 124 757
-6 124 752
-6 124 748
-6 123 743
-7 123 739
-7 123 734
-6 134 800
-7 126 750
-7 128 754
-7 127 750
-7 127 745
-7 133 775
-7 132 770
-7 129 748
-7 124 720
-5 112 634
-4 121 680
-4 124 697
4 121 666
4 121 663
4 121 659
4 121 656
19 112 588
19 112 585
18 111 582
18 111 580
18 111 577
18 111 574
18 111 572
18 111 569
27 152 776
18 110 564
17 110 561
17 110 559
17 110 556
17 110 554
17 109 551
17 109 549
17 109 546
17 109 544
25 148 731
25 147 727
13 93 462
13 96 473
13 94 465
19 122 597
19 122 594
19 121 591
19 123 599
18 121 585
18 121 583
18 118 569
17 118 569
15 119 574
15 110 527
19 135 641
19 134 637
18 135 641
9 141 676
9 134 644
9 134 643
8 134 640
16 129 602
16 131 610
16 128 597
17 133 615
16 132 612
16 132 611
8 137 642
8 137 638
8 137 635
10 147 683
9 147 679
9 147 676
9 141 646
8 140 643
8 140 640
9 145 662
9 145 658
-8 158 735
-8 157 731
-8 157 727
-8 91 426
-8 169 771
-8 161 733
-8 160 729
-8 160 725
-8 160 721
-8 166 748
-8 166 744
-8 165 739
-8 165 735
-8 164 731
-8 164 727
-8 163 722
-8 178 785
-8 177 780
-8 169 741
-8 168 737
-8 168 733
-8 167 729
-6 165 714
-8 173 752
-7 172 742
-4 169 724
28 198 815
38 257 1051
-4 183 780
-9 187 801
-9 187 796
-9 176 750
-9 176 746
-10 193 819
-10 193 813
-10 192 808
-10 191 803
-10 195 817
-10 194 812
-10 194 807
-10 198 821
-10 197 816
-10 196 810
-9 186 766
-9 185 762
-9 184 757
-9 184 753
-10 202 823
-10 201 821
-10 206 836
-11 215 873
-10 199 806
-11 220 887
-11 219 881
-11 218 875
-10 221 884
-10 220 878
-11 220 880
-11 219 870
-12 224 890
-11 228 903
-12 228 901
-12 227 895
-12 226 888
-11 209 822
-12 232 907
-10 140 548
-12 261 1018
-12 228 888
-10 241 933
-10 240 926
-10 239 920
-10 238 913
-9 225 861
-9 224 855
-13 251 961
-12 221 845
-12 220 840
-13 244 928
-10 242 916
-10 241 909
-13 244 920
-10 245 921
-13 248 932
-13 247 925
-13 252 943
-13 251 936
-10 246 912
-12 233 865
-12 232 859
-13 256 945
-13 257 946
-13 256 939
-13 254 933
-13 260 951
-13 259 944
-13 257 937
-13 263 956
-8 323 1165
11 327 1160
-14 275 994
-14 274 986
-13 271 974
-13 270 967
-13 268 959
-13 274 979
-14 281 1000
-13 279 992
-13 278 985
-13 261 925
-13 260 918
-13 259 912
-13 257 905
-14 325 1141
-14 323 1131
-14 283 988
-14 281 980
-13 280 973
-14 295 1023
-14 293 1015
-14 291 1007
-14 289 999
-13 272 938
-13 271 931
-13 269 924
-13 268 917
-14 300 1023
-14 298 1015
-14 296 1007
-14 294 999
-14 293 992
-14 307 1038
-14 305 1030
-14 303 1021
-14 302 1013
-14 285 955
-14 283 948
-14 305 1019
-14 280 934
-16 311 1029
-17 335 1108
-16 323 1065
-16 321 1056
-16 319 1048
-16 317 1039
-16 300 982
-16 298 975
-16 297 968
-16 295 960
-15 293 953
-16 329 1067
-16 327 1058
-16 325 1050
-16 323 1041
-17 336 1081
-17 334 1072
-17 332 1063
-16 315 1009
-16 314 1001
-16 312 993
-16 310 986
-16 308 978
-16 306 971
-18 395 1247
-18 392 1235
-15 336 1058
-8 344 1075
-8 332 1036
-5 324 1005
-5 322 997
-5 308 954
5 285 874
24 259 778
22 246 738
22 245 734
22 244 730
24 265 788
24 263 784
23 262 779
23 262 777
24 266 788
23 265 783
23 264 778
22 257 756
22 256 752
22 255 747
22 254 743
22 253 739
21 252 735
21 251 730
21 250 726
21 249 722
9 180 437
-7 41 992
-7 41 984
-7 41 976
-7 41 968
-3 52 597
-3 52 594
-3 52 591
-3 57 629
-3 57 625
-3 57 622
-3 57 619
-3 57 616
-3 57 613
-3 60 634
-3 60 630
-3 60 627
-3 58 600
-3 58 597
-3 58 595
-4 58 595
-3 69 697
-3 69 693
-4 63 633
-4 63 630
-4 63 626
-4 66 648
-4 66 645
-4 66 641
-4 63 614
-4 63 610
-4 64 607
-4 64 604
-4 69 652
-4 69 648
-4 69 645
-4 69 641
-4 69 638
-4 72 658
-4 72 655
-4 72 651
-4 69 625
-4 69 622
-4 69 619
-4 69 615
-2 102 890
-3 102 884
-3 101 877
-3 75 649
-3 75 646
-3 78 664
-3 78 661
-3 78 657
-3 78 654
-3 75 629
-3 75 626
-3 75 623
-3 75 620
-3 82 669
-3 82 666
-3 82 662
-3 82 658
-3 84 675
-3 84 671
-3 84 668
-3 84 664
-3 81 641
-3 81 638
-3 85 667
-3 81 631
-3 81 628
-2 97 743
-2 97 738
-3 88 671
-3 91 686
-3 90 682
-3 90 679
-3 90 675
-3 88 653
-3 88 650
-3 92 678
-3 87 643
-5 88 648
-5 96 702
-5 96 698
-5 96 694
-5 96 693
-5 98 704
-5 98 700
-5 98 696
-5 95 675
-5 95 672
-5 99 699
-5 95 664
-5 95 661
-5 95 657
-5 113 773
-5 105 716
-5 105 712
-5 105 707
-5 109 735
-5 109 730
-5 106 710
-5 109 722
-5 108 718
-5 108 713
-5 108 709
-5 118 771
-5 115 749
-5 112 728
-5 112 724
-5 112 720
-5 117 748
-5 116 743
-5 114 723
-5 116 734
-5 116 730
-5 115 726
-5 115 722
-5 115 717
-5 139 861
-5 131 813
-5 119 736
-5 119 732
-5 124 761
-5 124 756
-5 124 752
-5 123 747
-5 123 743
-5 123 738
-5 123 734
-5 122 730
-5 134 795
-5 127 754
-5 127 749
-6 127 751
-6 127 746
-6 133 776
-6 132 772
-6 129 750
-6 129 745
-7 129 744
-5 121 682
-4 124 694
5 121 664
5 121 660
4 121 657
4 120 653
19 112 586
19 112 583
19 111 580
18 111 578
18 111 575
18 111 572
18 111 570
27 152 778
18 110 564
18 110 562
18 110 559
17 110 557
17 110 554
17 110 552
17 109 549
17 109 547
17 109 545
17 109 542
25 147 728
16 109 538
16 108 535
13 94 465
13 94 464
24 145 707
19 124 602
19 124 599
19 121 586
18 118 572
18 118 569
18 118 567
18 118 564
19 135 647
21 134 635
19 134 638
18 135 641
18 135 638
9 135 645
9 134 642
9 134 639
17 131 614
17 131 611
17 133 619
17 133 616
17 132 613
17 132 610
16 132 607
9 137 639
8 137 636
10 148 684
10 147 680
10 147 677
9 141 647
9 140 644
9 140 641
9 145 662
9 145 659
-8 158 736
-8 158 732
-8 157 728
-7 91 426
-8 169 772
-8 161 734
-8 161 730
-8 160 726
-8 160 722
-8 166 749
-8 166 745
-8 165 740
-8 165 736
-8 164 732
-8 164 728
-8 163 724
-8 178 786
-8 169 747
-8 169 742
-8 168 738
-8 168 734
-7 170 743
-8 174 758
-8 174 753
-8 173 749
29 210 867
39 259 1063
13 167 694
-9 188 807
-9 187 799
-8 177 753
-8 176 748
-9 193 818
-9 194 820
-9 193 815
-9 192 809
-9 196 824
-9 195 818
-9 195 813
-9 194 808
-9 198 822
-9 197 817
-9 196 812
-9 186 767
-9 185 763
-9 184 758
-11 319 1300
-9 202 825
-9 205 836
-9 215 873
-10 216 874
-10 204 827
-10 220 889
-10 219 883
-10 218 877
-10 222 889
-9 219 875
-10 220 877
-10 219 871
-11 224 888
-10 223 881
-11 227 898
-11 226 892
-11 225 886
-10 209 820
-11 190 744
-11 231 902
-12 239 930
-11 244 944
-9 240 928
-9 239 921
-9 238 915
-9 225 863
-9 224 857
-12 226 866
-9 218 832
-9 242 918
-9 244 924
-12 246 931
-12 244 924
-12 243 917
-12 249 936
-12 247 929
-12 246 922
-12 252 940
-10 248 925
-9 246 914
-10 230 855
-9 228 846
-10 252 928
-10 253 930
-10 252 923
-10 251 917
-13 261 953
-13 259 946
-13 258 939
-14 339 1231
12 330 1173
-2 337 1208
-14 276 996
-13 273 983
-13 271 976
-13 270 969
-13 269 961
-13 275 981
-13 281 1002
-13 280 994
-13 278 987
-13 262 927
-13 260 920
-13 259 913
-13 258 907
-14 326 1143
-14 324 1133
-13 283 990
-13 282 982
-13 280 975
-14 295 1025
-14 293 1017
-13 292 1009
-13 290 1001
-13 272 939
-13 271 932
-13 270 926
-13 268 919
-14 300 1025
-14 298 1017
-14 297 1009
-14 295 1001
-14 293 993
-14 308 1040
-14 306 1032
-14 304 1023
-14 302 1015
-13 285 957
-13 283 950
-14 306 1021
-13 280 936
-14 309 1021
-14 333 1098
-14 320 1055
-14 318 1047
-14 316 1038
-14 315 1030
-14 298 974
-14 296 967
-15 297 969
-15 296 962
-16 332 1078
-16 330 1069
-16 328 1060
-16 326 1052
-16 324 1043
-16 337 1083
-16 335 1074
-16 332 1065
-16 316 1011
-16 314 1003
-16 312 995
-16 310 987
-16 309 980
-16 307 973
-18 396 1250
-18 393 1238
-16 341 1072
-17 364 1144
-17 350 1098
-17 348 1089
-17 346 1080
-16 330 1030
-16 328 1021
-17 349 1086
-16 324 1006
-16 322 998
-14 317 980
-4 335 1025
-4 333 1017
-5 331 1009
-5 330 1006
6 312 939
24 265 784
23 264 780
23 257 757
22 256 753
22 255 749
22 254 744
22 253 740
22 252 736
22 251 732
21 250 727
21 249 723
-12 41 1035
-5 41 984
0 41 947
-1 41 940
-10 42 990
-3 52 598
-3 52 595
-3 57 630
-3 57 626
-3 57 623
-3 57 620
-3 57 617
-3 57 611
-3 60 634
-3 60 631
-3 60 628
-3 58 601
-3 58 598
-3 58 595
-3 58 592
-2 69 693
-2 69 689
-3 63 629
-3 63 626
-3 63 623
-2 66 644
-3 66 641
-3 66 638
-4 63 614
-4 64 611
-4 64 608
-4 64 605
-4 69 653
-4 69 649
-4 69 646
-4 69 642
-4 69 639
-4 72 659
-4 72 656
-4 72 652
-4 69 626
-4 69 622
-4 69 619
-4 69 616
-2 102 892
-2 102 885
-2 102 879
-4 75 655
-4 75 651
-4 78 670
-4 78 666
-4 78 663
-4 75 637
-4 75 634
-4 75 631
-4 75 628
-4 75 624
-4 82 675
-2 82 666
-3 82 663
-3 82 659
-2 84 676
-2 84 672
-2 84 669
-3 84 665
-3 81 642
-3 81 639
-3 86 668
-3 81 632
-3 81 629
-2 97 744
-2 97 739
-3 88 672
-2 91 687
-2 91 683
-2 90 680
-2 90 676
-3 88 654
-3 88 651
-3 88 647
-3 88 644
-3 87 640
-2 95 693
-2 95 689
-2 95 685
-2 95 684
-2 97 695
-2 97 691
-2 97 687
-3 94 667
-3 94 663
-3 94 660
-3 94 656
-5 95 662
-5 95 658
-5 103 705
-5 105 717
-5 105 713
-5 105 708
-5 109 736
-5 109 731
-5 106 711
-5 109 723
-5 108 719
-5 108 714
-5 108 710
-5 118 772
-5 115 750
-5 112 729
-5 112 725
-5 112 721
-5 117 749
-5 116 744
-5 114 724
-5 116 735
-5 116 731
-5 115 727
-5 115 723
-4 139 868
-4 135 840
-5 132 814
-5 119 737
-5 119 733
-5 124 762
-5 124 758
-5 124 753
-5 124 748
-5 123 744
-5 123 740
-5 123 735
-5 122 731
-5 134 796
-5 127 755
-5 127 751
-5 127 746
-5 126 742
-5 132 771
-5 132 767
-5 128 745
-5 131 757
-6 128 739
-7 128 740
-4 111 622
-4 111 619
1 93 510
5 121 658
5 121 654
19 112 586
19 112 584
19 111 581
19 111 578
18 111 576
18 111 573
18 111 570
18 111 568
18 110 565
18 110 562
18 110 560
18 110 557
17 110 555
17 110 552
17 109 550
17 109 548
17 109 545
17 109 543
17 109 540
17 109 538
17 108 536
16 107 525
13 94 464
13 94 462
13 94 461
13 94 459
19 121 587
18 118 572
18 118 570
18 118 567
18 118 565
21 134 639
19 135 644
19 135 641
